# .PCD v0.7 - Point Cloud Data file format
VERSION 0.7
FIELDS x y z intensity
SIZE 4 4 4 4
TYPE F F F F
COUNT 1 1 1 1
WIDTH 1307
HEIGHT 1
VIEWPOINT 0 0 0 1 0 0 0
POINTS 1307
DATA ascii
1.2623351 0.36530983 0.16135503 23
1.2051904 0.34854406 -0.15404287 81
1.2733631 0.36801895 0.20993507 13
1.2077677 0.34906101 -0.10999054 100
1.2731571 0.36771935 0.25759214 100
1.2108415 0.34949151 -0.066047981 56
1.2085978 0.34838694 -0.021955127 100
1.2360561 0.35420012 0.022443794 100
1.2346735 0.35333765 0.067304045 42
1.2642897 0.3615745 0.11504558 27
1.2060736 0.34469756 -0.1986718 100
1.2674199 0.3619912 0.1618425 17
1.1930377 0.34052086 -0.15233669 62
1.2670414 0.36140481 0.20868361 50
1.2185584 0.34757575 -0.11086211 100
1.2763211 0.36381081 0.25797379 100
1.2120543 0.34526247 -0.066047981 56
1.2213469 0.3474493 -0.022164557 100
1.2411333 0.35097191 0.022513606 100
1.2358993 0.34902593 0.067304045 45
1.2578741 0.35499474 0.11434833 27
1.2091707 0.34102133 -0.19898467 100
1.2801397 0.36079612 0.16330492 16
1.1961299 0.33689278 -0.15258044 59
1.2568864 0.3537682 0.20680638 100
1.212093 0.34116051 -0.11016486 100
1.2794731 0.35988525 0.25835541 100
1.2190201 0.3426511 -0.066361994 55
1.20715 0.33885995 -0.021885319 100
1.2462033 0.34771189 0.022583414 100
1.2448061 0.34685379 0.06772273 41
1.255267 0.34953257 0.11399971 29
1.2027414 0.33468047 -0.19773319 100
1.2852166 0.35738873 0.16379242 16
1.1972985 0.33271569 -0.15258044 54
1.2466934 0.34620762 0.20492917 100
1.1998382 0.33319589 -0.10894467 56
1.2845051 0.35646647 0.25911862 100
1.2182841 0.33786035 -0.066257328 54
1.2083254 0.33464441 -0.021885319 100
1.2396973 0.34123719 0.022443794 100
1.2498611 0.34356496 0.067932077 45
1.244952 0.34198245 0.11295383 27
1.1943778 0.32786521 -0.19616884 100
1.290285 0.35395029 0.16427989 16
1.2041957 0.330109 -0.15331164 52
1.2574203 0.34446299 0.20649351 100
1.2182883 0.33374301 -0.11051348 56
1.2857417 0.35198021 0.25911862 100
1.219456 0.33360597 -0.066257328 54
1.2133443 0.33147818 -0.021955127 100
1.2370213 0.33585951 0.022373985 100
1.2510526 0.33920029 0.067932077 42
1.2615228 0.34180272 0.11434833 26
1.1955149 0.32369432 -0.19616884 100
1.2723507 0.34425983 0.1618425 17
1.2091734 0.32693952 -0.15379913 100
1.258615 0.34007195 0.20649351 100
1.2213693 0.33000833 -0.11068779 72
1.2717993 0.34339613 0.25606567 100
1.2167566 0.32830629 -0.066047981 56
1.2222173 0.32932207 -0.022094747 100
1.2420495 0.33257416 0.022443794 100
1.2406522 0.33173534 0.067304045 42
1.2742573 0.34048334 0.1153942 29
1.1966375 0.31951949 -0.19616884 82
1.2735447 0.33981603 0.1618425 17
1.2045531 0.32118207 -0.1530679 54
1.263612 0.33669397 0.20711927 100
1.2051868 0.32112637 -0.10911899 48
1.2767847 0.3399646 0.25682893 100
1.2178953 0.32405671 -0.066047981 56
1.2214268 0.3245399 -0.022059841 98
1.2470698 0.32925722 0.022513606 100
1.2418023 0.32740352 0.067304045 44
1.2715847 0.33501771 0.11504558 28
1.2053868 0.31735191 -0.19742033 87
1.2785624 0.33637947 0.16232997 17
1.2018273 0.31596622 -0.15258044 54
1.2609586 0.33127686 0.20649351 100
1.2294245 0.3229923 -0.11121072 62
1.2893568 0.33849773 0.25911862 100
1.2209508 0.32031059 -0.066152655 55
1.2128801 0.31774077 -0.021885319 100
1.2482116 0.32490179 0.022513606 100
1.25067 0.32507625 0.06772273 41
1.2611761 0.32757139 0.11399971 26
1.2198713 0.31661648 -0.1996104 100
1.2874149 0.33390754 0.16330492 16
1.2048446 0.31226686 -0.15282416 100
1.2525457 0.32439721 0.20492917 100
1.2073994 0.31270474 -0.10911899 68
1.2981331 0.33596221 0.26064509 100
1.2259288 0.31704652 -0.066361994 55
1.2139817 0.31350538 -0.021885319 100
1.24159 0.31855571 0.022373985 100
1.2517971 0.32070827 0.06772273 42
1.2545911 0.32119143 0.11330246 28
1.1941767 0.30550188 -0.19523023 85
1.2885727 0.32941127 0.16330492 22
1.2040037 0.30756879 -0.15258044 100
1.2536705 0.32002267 0.20492917 100
1.2142749 0.30996624 -0.10964192 100
1.2916887 0.32948744 0.25911862 100
1.2289633 0.31325948 -0.066466674 54
1.2150688 0.30926555 -0.021885319 100
1.2426945 0.3142195 0.022373985 100
1.2606548 0.31829271 0.068141423 45
1.2634321 0.31875935 0.11399971 29
1.2067286 0.30422866 -0.19710746 100
1.2762402 0.32151702 0.16159877 23
1.2185452 0.30675605 -0.15428659 100
1.2701056 0.31949949 0.20743214 100
1.2056887 0.3032952 -0.10877036 100
1.2890229 0.32401964 0.25835541 100
1.222301 0.30702111 -0.066047981 56
1.2219597 0.30648199 -0.021990033 98
1.2437837 0.30988002 0.022373985 100
1.2501292 0.31099695 0.067513391 46
1.2684041 0.31530881 0.11434833 26
1.2039486 0.29906291 -0.1964817 100
1.2754282 0.31658161 0.16135503 23
1.204195 0.29867727 -0.15233669 100
1.2731302 0.31554013 0.207745 79
1.2164091 0.30148205 -0.10964192 100
1.2882404 0.31904584 0.25797379 99
1.2194877 0.30179268 -0.065838635 56
1.2269047 0.30317375 -0.022059841 98
1.248742 0.3064895 0.022443794 100
1.2512071 0.30663154 0.067513391 46
1.2733676 0.3118268 0.11469696 29
1.2107418 0.29626679 -0.19742033 100
1.2784537 0.31259933 0.16159877 23
1.2052301 0.29447228 -0.15233669 100
1.264629 0.30875126 0.20618065 71
1.2135832 0.29628876 -0.1092933 68
1.2988828 0.31687394 0.25988188 100
1.2263551 0.29895338 -0.066152655 55
1.2182409 0.29652429 -0.021885319 100
1.2614667 0.30494761 0.022653224 100
1.2483867 0.30132514 0.067304045 45
1.2667009 0.30551109 0.11399971 27
1.2079276 0.29111332 -0.19679457 73
1.2930464 0.31138834 0.16330492 22
1.2081809 0.29072756 -0.15258044 100
1.2695402 0.30525887 0.20680638 14
1.2107357 0.2911194 -0.10894467 64
1.3037988 0.31325561 0.26064509 100
1.2312752 0.29560295 -0.066361994 55
1.215379 0.29133853 -0.021815507 100
1.2508513 0.29776415 0.022443794 100
1.2610376 0.29995644 0.067932077 45
1.2677596 0.30108789 0.11399971 26
1.2147025 0.28826311 -0.19773319 98
1.3037832 0.30916265 0.16452362 33
1.2207779 0.28925478 -0.15404287 100
1.276312 0.30241323 0.207745 14
1.2059281 0.28551397 -0.10842174 56
1.2896003 0.3050864 0.25759214 100
1.230356 0.29084396 -0.066257328 54
1.224123 0.28914502 -0.021955127 100
1.247938 0.29270154 0.022373985 100
1.262077 0.29555246 0.067932077 45
1.276563 0.29847547 0.11469696 26
1.2156516 0.28423366 -0.19773319 100
1.289337 0.3012242 0.16257372 100
1.2236633 0.28565645 -0.15428659 100
1.2754362 0.29750779 0.20743214 73
1.2166194 0.2835637 -0.1092933 64
1.2982529 0.30259046 0.25911862 72
1.2254781 0.28540358 -0.065943316 55
1.2309681 0.28622866 -0.022059841 98
1.2567461 0.29014266 0.022513606 100
1.2592083 0.29024822 0.06772273 45
1.2736628 0.29334587 0.11434833 30
1.2147114 0.27954575 -0.19742033 83
1.2632961 0.29049397 0.15916139 32
1.2111105 0.27827138 -0.15258044 100
1.276467 0.29305351 0.20743214 100
1.2214367 0.28041956 -0.10964192 80
1.2973876 0.29761818 0.258737 59
1.2206265 0.2797851 -0.065629296 58
1.2358583 0.28282246 -0.022129651 98
1.2616512 0.28664035 0.022583414 100
1.2563183 0.28496763 0.067513391 42
1.2843944 0.29110038 0.11521988 29
1.2118266 0.27443099 -0.19679457 30
1.2739831 0.28827325 0.16038008 36
1.2140106 0.27448013 -0.15282416 100
1.2794088 0.28903157 0.207745 100
1.2476724 0.28186199 -0.11190797 100
1.306079 0.29481643 0.26026347 59
1.2313372 0.27772 -0.066152655 55
1.2270839 0.27631003 -0.021955127 100
1.258741 0.28136185 0.022513606 100
1.2611549 0.2816703 0.06772273 46
1.2815136 0.28574771 0.11487127 27
1.2301302 0.27406505 -0.1996104 93
1.2924205 0.28770685 0.16257372 42
1.216899 0.27067143 -0.1530679 102
1.2649343 0.2813558 0.20524204 100
1.2214197 0.27145326 -0.10946761 61
1.2994337 0.28855407 0.258737 59
1.234249 0.27385244 -0.066257328 54
1.2221366 0.2709412 -0.021850415 98
1.255761 0.27632689 0.022443794 100
1.2660319 0.27812371 0.067932077 46
1.2708265 0.27871141 0.1138254 29
1.2252438 0.26871446 -0.1986718 100
1.3108193 0.28724334 0.16476737 37
1.2236073 0.26790854 -0.15379913 74
1.271698 0.27820477 0.20618065 100
1.2223598 0.26718831 -0.10946761 59
1.2984655 0.28382382 0.25835541 61
1.2390529 0.2706106 -0.066466674 56
1.2250286 0.26709971 -0.021885319 100
1.2528089 0.2710962 0.022373985 100
1.2669472 0.27392411 0.067932077 42
1.2717438 0.27449593 0.1138254 29
1.224243 0.26402029 -0.19835892 100
1.2924083 0.27848414 0.16232997 39
1.2284163 0.26447099 -0.15428659 74
1.2764758 0.27481791 0.20680638 100
1.2271348 0.26397163 -0.10981624 59
1.2898513 0.27722654 0.25644732 59
1.2263207 0.2633481 -0.065733969 55
1.2376387 0.26555324 -0.022094747 100
1.2576127 0.26777339 0.022443794 100
1.2600812 0.26783863 0.067513391 44
1.288286 0.27336377 0.11521988 29
1.2115855 0.25708857 -0.19616884 100
1.2933247 0.2741971 0.16232997 40
1.2156926 0.25751725 -0.15258044 68
1.2793599 0.27076983 0.20711927 100
1.2319473 0.26051059 -0.11016486 59
1.2984465 0.27457267 0.25797379 56
1.2291415 0.25969255 -0.065838635 56
1.2444282 0.2624692 -0.022199461 98
1.2703302 0.26561692 0.022653224 100
1.2571441 0.26240247 0.067304045 46
1.2931334 0.26967835 0.11556852 28
1.2183212 0.25385526 -0.19710746 100
1.2865474 0.26783696 0.16135503 39
1.2107979 0.25184613 -0.15184921 65
1.2784095 0.26567724 0.20680638 100
1.2406969 0.25761399 -0.11086211 59
1.3109777 0.27220684 0.26026347 58
1.239863 0.25721455 -0.066361994 55
1.2316746 0.25506803 -0.021955127 100
1.2673318 0.26037702 0.022583414 100
1.2619655 0.25881484 0.067513391 46
1.2784977 0.26174042 0.11417402 29
1.223114 0.25017956 -0.19773319 100
1.2991434 0.26573086 0.16281746 39
1.2233387 0.25000373 -0.15331164 62
1.2754583 0.26042247 0.20618065 100
1.2298757 0.25089183 -0.10981624 61
1.3138902 0.26779243 0.26064509 61
1.2427547 0.25306731 -0.066466674 56
1.2247193 0.24917211 -0.021815507 100
1.2643573 0.25493884 0.022513606 100
1.2746536 0.25655258 0.068141423 44
1.2696372 0.25531176 0.11330246 25
1.2201065 0.24513066 -0.19710746 100
1.3040011 0.26174912 0.16330492 37
1.2320323 0.2470787 -0.15428659 74
1.2802778 0.25652236 0.20680638 100
1.2268366 0.24581462 -0.10946761 61
1.3013415 0.26050657 0.25797379 59
1.2416719 0.2483357 -0.066361994 55
1.2373904 0.24703087 -0.022024937 100
1.2573929 0.24897106 0.022373985 100
1.2794602 0.2528758 0.06835077 45
1.2705206 0.25087923 0.11330246 88
1.2112646 0.23895819 -0.1955431 100
1.2873783 0.25374049 0.16111128 35
1.2367828 0.24354395 -0.15477408 74
1.2811656 0.25205144 0.20680638 100
1.2374618 0.24345335 -0.11033916 63
1.3041694 0.25634074 0.25835541 61
1.234692 0.2424608 -0.065943316 55
1.2480569 0.24463294 -0.022199461 100
1.2661062 0.24610634 0.022513606 100
1.2724922 0.24688676 0.067932077 45
1.2198486 0.23623116 -0.19679457 100
1.2921542 0.2499996 0.16159877 74
1.225931 0.23696512 -0.15331164 65
1.2859169 0.24832658 0.20743214 100
1.2304791 0.23762088 -0.10964192 55
1.3050562 0.25178704 0.25835541 61
1.2296473 0.23701565 -0.065629296 46
1.2469397 0.23989739 -0.022164557 100
1.2708861 0.24243498 0.022583414 100
1.2694223 0.24169594 0.06772273 45
1.2226067 0.23234013 -0.19710746 100
1.2208999 0.23157489 -0.15258044 68
1.2770716 0.24199776 0.20586778 100
1.2371738 0.23443736 -0.11016486 58
1.3136433 0.24869041 0.25988188 61
1.2320495 0.23257549 -0.021885319 100
1.2717246 0.23799695 0.022583414 100
1.2741848 0.23799707 0.067932077 46
1.2311778 0.22951934 -0.19835892 100
1.2295072 0.22876388 -0.15355539 68
1.2779086 0.23753874 0.20586778 100
1.2379845 0.23011765 -0.11016486 59
1.3183638 0.24482059 0.26064509 61
1.2367862 0.22900181 -0.021955127 100
1.2646803 0.23211208 0.022443794 100
1.278937 0.23426725 0.068141423 41
1.2183692 0.22273394 -0.19616884 100
1.2361568 0.22553925 -0.15428659 71
1.2806731 0.23343106 0.20618065 100
1.2289798 0.22400878 -0.1092933 53
1.3056899 0.23775484 0.25797379 59
1.2454484 0.22611172 -0.022094747 100
1.2615466 0.22698814 0.022373985 100
1.2875698 0.23143846 0.068560109 42
1.2152505 0.21778244 -0.1955431 100
1.2369366 0.22122318 -0.15428659 74
1.2911628 0.23092142 0.207745 100
1.2356384 0.22076845 -0.10981624 100
1.3026464 0.23250604 0.25721052 58
1.2501287 0.22268204 -0.022164557 100
1.2701695 0.22419405 0.022513606 100
1.2805018 0.22555695 0.068141423 42
1.2256938 0.215461 -0.19710746 100
1.2298423 0.21574835 -0.15331164 74
1.2939069 0.22675364 0.20805787 100
1.2364016 0.2164536 -0.10981624 32
1.3111458 0.22953887 0.258737 59
1.2528683 0.2186604 -0.022199461 33
1.2748853 0.22044006 0.022583414 100
1.2734088 0.21972702 0.06772273 42
1.2303318 0.21185249 -0.19773319 100
1.2286316 0.21111758 -0.1530679 68
1.2830089 0.22023143 0.20618065 100
1.321614 0.22662 0.26064509 64
1.3462659 0.2301216 -0.023839988 100
1.2835335 0.21732414 0.022723034 100
1.2820454 0.21661125 0.068141423 42
1.2349596 0.20821303 -0.19835892 100
1.2313185 0.20715716 -0.15331164 71
1.28377 0.21575122 0.20618065 100
1.3223971 0.22200498 0.26064509 61
1.2685019 0.21022652 0.022443794 100
1.2867347 0.21278739 0.06835077 40
1.2259338 0.20229256 -0.19679457 100
1.2379104 0.20382501 -0.15404287 68
1.2884136 0.21190955 0.20680638 100
1.3154147 0.21611536 0.25911862 61
1.2692279 0.20579821 0.022443794 100
1.2874696 0.20829421 0.06835077 39
1.2266325 0.19801229 -0.19679457 100
1.2405742 0.199818 -0.15428659 74
1.2969466 0.20866625 0.20805787 100
1.3122844 0.21089901 0.25835541 61
1.2738887 0.20199253 0.022513606 100
1.2704343 0.20099024 0.067408718 29
1.2273163 0.193729 -0.19679457 100
1.2393031 0.19517837 -0.15404287 68
1.2957157 0.20383047 0.207745 100
1.3168916 0.20692614 0.25911862 61
1.2864428 0.19938187 0.022723034 100
1.2750757 0.19716443 0.067618065 27
1.2319227 0.18983133 -0.19742033 100
1.236053 0.19024695 -0.15355539 81
1.2925146 0.19870631 0.20711927 100
1.3254033 0.20328896 0.26064509 62
1.2911193 0.19526385 0.022792844 100
1.2797395 0.19308592 0.067827404 27
1.2364846 0.18611768 -0.19804606 100
1.236742 0.18571557 -0.15355539 68
1.2873735 0.19308831 0.20618065 100
1.329988 0.19924322 0.26140836 61
1.2799236 0.18900271 0.022583414 100
1.2883096 0.18978161 0.068246089 29
1.233218 0.18122627 -0.19742033 100
1.245239 0.18254879 -0.15453033 68
1.2958578 0.18973838 0.20743214 100
1.3209623 0.19317868 0.25950024 61
1.2766169 0.18396364 0.022513606 100
1.2929181 0.18585142 0.068455435 31
1.2299322 0.17635991 -0.19679457 100
1.2478338 0.17848234 -0.15477408 74
1.3004234 0.1857722 0.20805787 100
1.3216287 0.18856613 0.25950024 64
1.2851723 0.18061918 0.022653224 100
1.2896031 0.18078287 0.068246089 31
1.2344531 0.17261295 -0.19742033 100
1.240585 0.17302832 -0.15379913 71
1.3010638 0.18123202 0.20805787 100
1.3183898 0.1834109 0.258737 61
1.2897573 0.17667504 0.022723034 100
1.2822801 0.1754228 0.067827404 38
1.2370054 0.16856924 -0.19773319 100
1.2372472 0.16816236 -0.15331164 71
1.2977428 0.17638472 0.20743214 100
1.3268039 0.17986229 0.26026347 61
1.290336 0.17239733 0.022723034 100
1.288824 0.17173682 0.068141423 41
1.2434322 0.16524662 -0.1986718 100
1.2456696 0.16510212 -0.15428659 74
1.2944341 0.17133491 0.20680638 100
1.3351784 0.17649083 0.26178995 62
1.2790321 0.16634443 0.022513606 100
1.3012702 0.16900505 0.068769448 42
1.2361652 0.15989131 -0.19742033 100
1.2541136 0.16176841 -0.15526156 71
1.2989135 0.16754715 0.20743214 100
1.3279973 0.17082748 0.26026347 61
1.2795767 0.16210173 0.022513606 100
1.2978891 0.16396198 0.068560109 45
1.2327688 0.15529761 -0.19679457 100
1.2546432 0.15760839 -0.15526156 71
1.2994905 0.16301174 0.20743214 100
1.3149203 0.16471484 0.25759214 59
1.2920984 0.15864985 0.022723034 100
1.2905793 0.15800609 0.068141423 45
1.2372775 0.15104261 -0.19742033 100
1.2473569 0.1518306 -0.15428659 71
1.3118725 0.15945059 0.20930934 100
1.3252877 0.16084708 0.25950024 61
1.3005867 0.15508597 0.022862652 100
1.291123 0.15349981 0.068141423 46
1.2377973 0.14672245 -0.19742033 100
1.2459078 0.14724287 -0.15404287 68
1.3026121 0.15371375 0.207745 100
1.3316905 0.15690884 0.26064509 58
1.2591743 0.14769612 -0.022129651 15
1.3050929 0.15100445 0.022932461 100
1.2956192 0.14945064 0.06835077 44
1.2500764 0.14375456 -0.19929753 100
1.3272469 0.15239419 0.16403615 67
1.254303 0.143797 -0.15501782 77
1.2992158 0.14871623 0.20711927 100
1.3419828 0.15337433 0.26255319 62
1.2676299 0.14420426 -0.022269269 48
1.2857399 0.14421853 0.022583414 100
1.3001027 0.14537072 0.068560109 46
1.2387915 0.13807742 -0.19742033 100
1.3317165 0.14819969 0.16452362 100
1.2626892 0.1402943 -0.15599278 77
1.3036535 0.14461605 0.207745 100
1.2633947 0.1401501 -0.11121072 100
1.3288509 0.14717646 0.25988188 58
1.2721008 0.14021698 -0.022339081 100
1.2902116 0.1401618 0.022653224 100
1.3085201 0.14191969 0.068978801 45
1.2392659 0.13375206 -0.19742033 100
1.3085419 0.14099789 0.16159877 37
1.2611976 0.13567379 -0.15574904 71
1.3139462 0.14134824 0.20930934 100
1.2757624 0.13701539 -0.1122566 61
1.3313086 0.14274597 0.26026347 61
1.268582 0.13557242 -0.022269269 100
1.2946466 0.13630153 0.022723034 100
1.3050348 0.13693465 0.068769448 46
1.3217163 0.13821863 0.11626577 22
1.2436318 0.13005294 -0.19804606 100
1.3149252 0.13727644 0.16232997 36
1.2497939 0.13025634 -0.15428659 71
1.3163962 0.13696556 0.2096222 100
1.2663243 0.13153177 -0.11138504 63
1.3356801 0.13873568 0.26102671 61
1.2750149 0.13175973 -0.022373985 100
1.2990935 0.13218606 0.022792844 100
1.2975566 0.13157211 0.06835077 45
1.3201851 0.13363387 0.11609145 30
1.2480091 0.12610851 -0.1986718 100
1.3213216 0.13328299 0.1630612 40
1.250241 0.12589261 -0.15428659 71
1.3050735 0.13118452 0.207745 100
1.2508942 0.12573847 -0.10999054 53
1.3420167 0.13466078 0.26217157 59
1.2635282 0.12611692 -0.022164557 100
1.3075072 0.12843275 0.022932461 100
1.3059589 0.12782046 0.068769448 45
1.312712 0.12825012 0.1153942 31
1.2543397 0.12232624 -0.1996104 100
1.3316575 0.12963185 0.16427989 40
1.258576 0.12229591 -0.15526156 71
1.311422 0.12719993 0.20868361 100
1.2592578 0.12214032 -0.11068779 63
1.3405244 0.12978654 0.26178995 62
1.2659512 0.12189754 -0.022199461 103
1.296003 0.12273638 0.022723034 100
1.310374 0.12363654 0.068978801 44
1.3052171 0.12291953 0.11469696 31
1.2409923 0.11665262 -0.19742033 100
1.3360548 0.12535386 0.16476737 40
1.2669011 0.11864194 -0.15623651 74
1.3118581 0.1226211 0.20868361 100
1.2438267 0.11604375 -0.1092933 55
1.3409692 0.12510672 0.26178995 62
1.2886488 0.11999799 -0.067827404 71
1.266369 0.11747807 -0.022199461 98
1.2924405 0.11784945 0.022653224 100
1.3107977 0.11906137 0.068978801 44
1.3096273 0.11849419 0.11504558 30
1.2492809 0.11281429 -0.1986718 100
1.3206679 0.11926077 0.16281746 40
1.2673075 0.11421917 -0.15623651 71
1.316213 0.11839533 0.20930934 100
1.2501776 0.1122354 -0.10981624 57
1.3316418 0.11931399 0.25988188 61
1.2632189 0.11296173 -0.066466674 56
1.2667713 0.11305656 -0.022199461 98
1.3008324 0.11380783 0.022792844 100
1.299287 0.11321628 0.06835077 46
1.3259124 0.11530256 0.11644007 30
1.2457311 0.10811147 -0.19804606 100
1.3250514 0.11476234 0.16330492 40
1.2558514 0.10854752 -0.15477408 74
1.320574 0.11391018 0.20993507 100
1.2585016 0.10855593 -0.11051348 59
1.3398741 0.11533939 0.26140836 64
1.2655954 0.10872219 -0.06657134 59
1.2771393 0.10926543 -0.022373985 100
1.3052068 0.10960192 0.022862652 100
1.2956936 0.10834702 0.068141423 44
1.3263067 0.11067446 0.11644007 30
1.2598809 0.10490952 -0.20023614 100
1.3333571 0.11079352 0.16427989 38
1.2522658 0.1038359 -0.15428659 71
1.3170265 0.10897369 0.20930934 100
1.2668154 0.10481912 -0.11121072 57
1.3480949 0.11130749 0.2629348 62
1.2719387 0.10479666 -0.06688536 56
1.27552 0.10464288 -0.022339081 98
1.3095679 0.10536563 0.022932461 100
1.3000457 0.10414279 0.06835077 44
1.3227127 0.10572626 0.11609145 31
1.2582703 0.10035368 -0.19992328 100
1.3376935 0.1064538 0.16476737 40
1.2644939 0.10040651 -0.15574904 74
1.3114911 0.10390733 0.20837073 100
1.2572428 0.099609323 -0.11033916 55
1.3523897 0.1069108 0.26369804 64
1.2782699 0.10082693 -0.067199372 59
1.2679031 0.099563919 -0.022199461 98
1.3019527 0.10017976 0.022792844 100
1.3163327 0.10082406 0.06918814 45
1.3151275 0.10050088 0.1153942 29
1.2507342 0.095361061 -0.1986718 100
1.3420156 0.10208451 0.16525485 40
1.270775 0.096442312 -0.15648025 77
1.3177551 0.099777088 0.20930934 100
1.2496359 0.094619274 -0.10964192 55
1.3488392 0.1018933 0.2629348 61
1.268656 0.09561348 -0.066676013 54
1.2762195 0.09573552 -0.022339081 98
1.2983057 0.095341846 0.022723034 100
1.3126926 0.095937707 0.068978801 45
1.3194444 0.096199654 0.11574282 31
1.2431788 0.090421081 -0.19742033 100
1.3304845 0.096537083 0.16379242 41
1.2790234 0.092579402 -0.15745521 77
1.3240061 0.095603108 0.21024795 100
1.2598947 0.09097378 -0.11051348 57
1.3374376 0.096337683 0.26064509 62
1.2749585 0.091614179 -0.066990033 55
1.2825296 0.091707632 -0.022443794 100
1.3105996 0.091645926 0.022932461 100
1.3130196 0.091355242 0.068978801 46
1.3237473 0.09186887 0.11609145 29
1.2553107 0.086899802 -0.19929753 100
1.3308133 0.091893151 0.16379242 41
1.2615153 0.086886279 -0.15526156 71
1.3322147 0.091522709 0.21149944 100
1.2661678 0.086985305 -0.11103641 62
1.3436418 0.092072137 0.26178995 59
1.273278 0.087026648 -0.06688536 56
1.2868321 0.087501802 -0.022513606 100
1.3109114 0.087070793 0.022932461 100
1.3053589 0.08624436 0.068560109 46
1.3359884 0.08803387 0.11713732 30
1.2595488 0.082776166 -0.19992328 100
1.331126 0.087246828 0.16379242 41
1.2618109 0.082482509 -0.15526156 71
1.32267 0.086228959 0.20993507 100
1.2684518 0.082694307 -0.11121072 59
1.3576686 0.088272668 0.26446128 62
1.27756 0.082840294 -0.067094706 58
1.2771519 0.082366176 -0.022339081 98
1.3151989 0.082745738 0.023002272 100
1.3176121 0.082435839 0.06918814 46
1.3283336 0.082873903 0.11644007 30
1.2637731 0.078623995 -0.20054901 100
1.3393476 0.083091751 0.16476737 38
1.2660538 0.078322269 -0.15574904 71
1.3190198 0.08136785 0.20930934 100
1.2607783 0.077775039 -0.11051348 57
1.3618877 0.083774365 0.26522452 62
1.2878091 0.078991316 -0.067618065 61
1.2794275 0.07802958 -0.022373985 100
1.307495 0.077679597 0.022862652 100
1.3139042 0.077600159 0.068978801 46
1.3206589 0.077767804 0.11574282 31
1.260096 0.073980846 -0.19992328 100
1.3435928 0.078647688 0.16525485 40
1.2762281 0.074480981 -0.15696773 81
1.3232398 0.076992877 0.20993507 100
1.2590531 0.073258162 -0.11033916 55
1.350412 0.078337416 0.2629348 62
1.2860831 0.074380502 -0.067513391 58
1.2816886 0.073677488 -0.02240889 98
1.3037652 0.072892144 0.022792844 100
1.3301206 0.073899932 0.069816172 44
1.324901 0.073378004 0.11609145 30
1.2564017 0.069363713 -0.19929753 100
1.3438591 0.07395684 0.16525485 40
1.2784624 0.070134662 -0.15721147 74
1.3294178 0.072696663 0.21087368 100
1.26328 0.06908004 -0.11068779 60
1.3467567 0.073409066 0.26217157 64
1.2783575 0.069457605 -0.067094706 56
1.2859317 0.069418356 -0.0224787 100
1.3119993 0.068758979 0.022932461 100
1.314402 0.068655506 0.068978801 45
1.3291286 0.068958901 0.11644007 30
1.2605817 0.065182514 -0.19992328 100
1.3361793 0.068857074 0.16427989 40
1.2668046 0.065060332 -0.15574904 74
1.3316243 0.068389334 0.21118654 100
1.275452 0.065281883 -0.11173366 60
1.3548474 0.06910789 0.26369804 64
1.2746029 0.064791754 -0.06688536 58
1.2901489 0.065356269 -0.02254851 98
1.3162148 0.06460356 0.023002272 100
1.3106438 0.063872181 0.068769448 46
1.3373214 0.064704381 0.11713732 30
1.264737 0.06119249 -0.20054901 100
1.3443314 0.064808391 0.16525485 40
1.2709789 0.06104923 -0.15623651 74
1.3298818 0.06364654 0.21087368 100
1.271692 0.060639199 -0.11138504 60
1.3570302 0.064708449 0.26407966 67
1.2827908 0.060943432 -0.067304045 58
1.2823794 0.06047589 -0.02240889 98
1.3244228 0.060373873 0.023141891 100
1.3148389 0.05970642 0.068978801 47
1.3335478 0.060090199 0.11678869 30
1.2669164 0.056865603 -0.20086187 100
1.3445494 0.060115043 0.16525485 42
1.2810997 0.05705478 -0.15745521 81
1.3221918 0.058884848 0.2096222 100
1.2738765 0.056509726 -0.11155935 64
1.3631319 0.060230765 0.26522452 62
1.2810003 0.056378346 -0.067199372 61
1.2785773 0.056047529 -0.022339081 98
1.316624 0.05564348 0.023002272 100
1.3230214 0.055450603 0.069397487 44
1.3218055 0.054938104 0.11574282 29
1.2611769 0.052418206 -0.19992328 100
1.3487082 0.055819828 0.16574231 40
1.2852488 0.052969318 -0.15794268 77
1.3302842 0.054592822 0.21087368 100
1.266103 0.051736988 -0.11086211 64
1.3594007 0.055549432 0.26446128 64
1.2831758 0.052210931 -0.067304045 58
1.2847593 0.051825572 -0.022443794 100
1.316828 0.050587915 0.023002272 100
1.327216 0.050523054 0.069606826 45
1.3299618 0.050395139 0.11644007 31
1.2574209 0.047426041 -0.19929753 100
1.3370104 0.050194241 0.16427989 39
1.2874265 0.048108369 -0.15818642 71
1.3383801 0.049777862 0.21212517 100
1.2642932 0.047022372 -0.11068779 53
1.3517565 0.05003912 0.2629348 64
1.2813709 0.04721028 -0.067199372 61
1.2989373 0.047402874 -0.022688128 100
1.3169966 0.045990668 0.023002272 100
1.3273844 0.045889545 0.069606826 46
1.3380945 0.046026006 0.11713732 31
1.2694241 0.043442167 -0.20117474 100
1.3371774 0.045527179 0.16427989 41
1.2776668 0.043277767 -0.15696773 81
1.34052 0.045172542 0.21243803 100
1.2883447 0.043414354 -0.11277953 63
1.3597715 0.045583699 0.26446128 64
1.2795317 0.042670265 -0.067094706 58
1.3010936 0.042934675 -0.022723034 100
1.3211464 0.041519117 0.023072081 100
1.3235366 0.041363019 0.069397487 46
1.3382469 0.041355181 0.11713732 31
1.2656192 0.038889714 -0.20054901 100
1.3452649 0.041101415 0.16525485 40
1.2778101 0.038817886 -0.15696773 77
1.3248667 0.040247392 0.20993507 100
1.2984458 0.039217949 -0.11365108 72
1.3658094 0.041013353 0.26560614 67
1.2836657 0.038323075 -0.067304045 58
1.2872372 0.038204849 -0.0224787 103
1.3292725 0.037362814 0.023211701 100
1.31968 0.036631573 0.06918814 47
1.3343998 0.036574043 0.11678869 29
1.2696904 0.034800448 -0.20117474 100
1.3453939 0.036640398 0.16525485 43
1.2799162 0.034633644 -0.15721147 74
1.3269738 0.035675235 0.21024795 100
1.278658 0.034152966 -0.11190797 66
1.3541627 0.036169697 0.26331642 64
1.2937684 0.034330618 -0.067827404 59
1.2873627 0.033710979 -0.0224787 100
1.3174003 0.032426968 0.023002272 100
1.3277864 0.032218881 0.069606826 45
1.3384974 0.032245051 0.11713732 31
1.2658546 0.030273397 -0.20054901 100
1.3574207 0.032226846 0.16671728 41
1.2859827 0.030306263 -0.15794268 77
1.3349897 0.03122744 0.21149944 100
1.2727888 0.029772468 -0.11138504 62
1.3601687 0.031579558 0.26446128 64
1.2938805 0.029814584 -0.067827404 70
1.2874726 0.029217308 -0.0224787 98
1.3175055 0.027828459 0.023002272 100
1.3318846 0.02766645 0.069816172 45
1.3386018 0.027572906 0.11713732 30
1.2620026 0.025774151 -0.19992328 100
1.3456168 0.027246887 0.16525485 39
1.2940195 0.025976183 -0.15891764 77
1.3390404 0.026646147 0.21212517 100
1.272885 0.025329692 -0.11138504 62
1.3583077 0.026792411 0.26407966 67
1.2899829 0.025219496 -0.067618065 59
1.3035611 0.02502978 -0.022757938 100
1.3255922 0.023369983 0.023141891 100
1.3239852 0.022879383 0.069397487 45
1.3546267 0.023172403 0.1185318 29
1.2699852 0.021502813 -0.20117474 100
1.3457037 0.022549922 0.16525485 39
1.2802087 0.021228936 -0.15721147 74
1.3391253 0.021972144 0.21212517 100
1.2849183 0.021082725 -0.11243091 62
1.3544672 0.021987423 0.26331642 65
1.2880661 0.020684663 -0.067513391 58
1.3036406 0.020479003 -0.022757938 100
1.3336637 0.018855385 0.023281511 100
1.324057 0.018257318 0.069397487 46
1.3586838 0.01849762 0.11888044 29
1.2720279 0.017096423 -0.20148762 100
1.3457743 0.017852046 0.16525485 39
1.2862296 0.016837655 -0.15794268 77
1.333268 0.017221333 0.21118654 100
1.2829919 0.016571933 -0.1122566 59
1.3682772 0.017434046 0.26598775 62
1.2941217 0.016263297 -0.067827404 59
1.2917068 0.015782015 -0.02254851 98
1.3377205 0.014242774 0.023351319 100
1.3281069 0.013676798 0.069606826 46
1.3348325 0.013513076 0.11678869 29
1.2780056 0.012714729 -0.20242621 100
1.3537683 0.013232198 0.1662298 42
1.2842956 0.012328987 -0.15769894 74
1.3313448 0.012548281 0.21087368 100
1.283044 0.011868482 -0.1122566 64
1.3859982 0.012820835 0.26942232 71
1.2961679 0.011764269 -0.067932077 64
1.291754 0.011272676 -0.02254851 100
1.3237646 0.0094726514 0.023106987 100
1.332141 0.0090682274 0.069816172 46
1.3368654 0.0086331032 0.116963 25
1.2701422 0.0079811513 -0.20117474 100
1.3657166 0.0085817091 0.16769223 38
1.294256 0.0079061724 -0.15891764 77
1.3392819 0.0079474775 0.21212517 100
1.2771004 0.0073562032 -0.11173366 62
1.3624773 0.0076095401 0.2648429 62
1.3061883 0.007067197 -0.068455435 61
1.2997843 0.0068063182 -0.022688128 100
1.3277897 0.0046350006 0.023176797 100
1.3401542 0.0042110225 0.070234857 45
1.2701623 0.0035471409 -0.20117474 100
1.3498583 0.0035334793 0.16574231 88
1.3022166 0.0031821234 -0.15989259 81
1.3472035 0.0030569355 0.21337664 100
1.2850884 0.0026910999 -0.11243091 62
1.3703486 0.0028696426 0.26636937 71
1.2962189 0.0024888059 -0.067932077 56
1.3077992 0.0020539355 -0.022827748 100
1.3277978 -0 0.023176797 100
1.3241827 -0.00046222701 0.069397487 49
1.2721423 -0.0011101537 -0.20148762 100
1.284354 -0.0013449728 -0.15769894 74
1.3511566 -0.0016507501 0.21400237 100
1.2890748 -0.0017998889 -0.11277953 62
1.3585703 -0.0021340388 0.26407966 68
1.2882302 -0.002248388 -0.067513391 52
1.3097981 -0.0025146347 -0.022862652 100
1.3357885 -0.0046628001 0.023316415 100
1.3281684 -0.0048680133 0.069606826 47
1.2958359 -0.0054280162 -0.20524204 100
1.2883117 -0.0058462131 -0.15818642 74
1.3392917 -0.0060775545 0.21212517 100
1.2930466 -0.0060933833 -0.11312816 62
1.3664087 -0.0066775857 0.26560614 66
1.3037835 -0.0068266564 -0.022757938 100
1.3397648 -0.0091196308 0.023386225 100
1.3281432 -0.0095041571 0.069606826 45
1.2997614 -0.0097547825 -0.20586778 100
1.2942402 -0.010165147 -0.15891764 81
1.3353118 -0.010720799 0.21149944 100
1.2770787 -0.010476172 -0.11173366 60
1.3820847 -0.011337561 0.26865909 67
1.3017522 -0.01136022 -0.022723034 100
1.3317264 -0.013713862 0.023246605 100
1.3400849 -0.014267765 0.070234857 46
1.2918184 -0.014204857 -0.20461631 100
1.3001518 -0.014750388 -0.15964885 86
1.3411919 -0.015450102 0.21243803 100
1.2810189 -0.01498054 -0.11208228 60
1.3741841 -0.016070036 0.26713261 71
1.3137019 -0.016050695 -0.022932461 100
1.3356696 -0.018417515 0.023316415 100
1.3520093 -0.019114854 0.070862897 42
1.2878072 -0.018881593 -0.20399056 100
1.3100169 -0.019435916 -0.16086754 81
1.3569311 -0.020368835 0.21494098 100
1.2889273 -0.019573046 -0.11277953 62
1.3544859 -0.020805044 0.26331642 64
1.3355932 -0.023312865 0.023316415 100
1.3359587 -0.023552489 0.070025519 46
1.2916837 -0.023448471 -0.20461631 100
1.2940587 -0.023943448 -0.15891764 81
1.3529017 -0.025032196 0.21431525 100
1.2888511 -0.024072122 -0.11277953 62
1.3740339 -0.025902998 0.26713261 71
1.347504 -0.027990898 0.023525843 100
1.3318748 -0.028131358 0.069816172 44
1.2994984 -0.027901337 -0.20586778 100
1.2939721 -0.028234573 -0.15891764 77
1.3429314 -0.029537365 0.2127509 100
1.2927433 -0.028659228 -0.11312816 53
1.377866 -0.030546341 0.26789585 66
1.3434 -0.032597382 0.023456035 100
1.3357618 -0.032878585 0.070025519 45
1.3033427 -0.032535855 -0.20649351 100
1.307757 -0.033102833 -0.1606238 86
1.3388706 -0.034124229 0.21212517 100
1.2806848 -0.032864895 -0.11208228 100
1.3816763 -0.035456538 0.26865909 69
1.33928 -0.037175551 0.023386225 100
1.3396317 -0.037653297 0.070234857 45
1.2953163 -0.037086487 -0.20524204 100
1.3016806 -0.037496075 -0.15989259 77
1.3446671 -0.038969226 0.21306378 100
1.2885283 -0.037567373 -0.11277953 58
1.3697625 -0.040175047 0.26636937 70
1.3371361 -0.042021196 0.023351319 100
1.3474772 -0.042581592 0.070653543 44
1.2912303 -0.041480903 -0.20461631 100
1.3114547 -0.042588878 -0.16111128 86
1.3543944 -0.043983329 0.21462812 100
1.2903807 -0.042129964 -0.11295383 27
1.3696139 -0.04495617 0.26636937 69
1.3409865 -0.046593949 0.023421129 100
1.3513125 -0.047425013 0.070862897 42
1.2989823 -0.046042442 -0.20586778 100
1.2815489 -0.045872435 -0.15745521 77
1.3641032 -0.049065813 0.21619245 100
1.3773053 -0.049781378 0.26789585 68
1.350807 -0.051656663 0.023595655 100
1.3391731 -0.051445838 0.070234857 39
1.3007874 -0.05065332 -0.20618065 100
1.2793975 -0.050267667 -0.15721147 68
1.3560376 -0.053278867 0.21494098 100
1.3810465 -0.054744296 0.26865909 65
1.3526261 -0.056218851 0.023630559 100
1.3469673 -0.056454651 0.070653543 40
1.3065332 -0.055216838 -0.20711927 100
1.3050066 -0.055608679 -0.16038008 81
1.3499225 -0.057758659 0.21400237 100
1.4024333 -0.06025064 0.27285689 74
1.3444096 -0.061049283 0.023490939 100
1.3547213 -0.061991405 0.071072236 42
1.296445 -0.059778206 -0.2055549 100
1.318664 -0.061263997 -0.16208623 86
1.3575839 -0.063309632 0.21525384 100
1.3806195 -0.064625368 0.26865909 70
1.3381964 -0.065448724 0.023386225 100
1.3544967 -0.066719882 0.071072236 44
1.2982016 -0.064401165 -0.20586778 100
1.2966334 -0.064777099 -0.15940511 77
1.3672191 -0.068542629 0.21681818 100
1.3764639 -0.069246948 0.26789585 66
1.3419538 -0.070328824 0.023456035 100
1.3382996 -0.070605755 0.070234857 47
1.301914 -0.069141857 -0.20649351 100
1.2845057 -0.068666987 -0.15794268 74
1.3669714 -0.073314704 0.21681818 100
1.3840554 -0.074473225 0.26942232 66
1.3556761 -0.075794056 0.023700368 100
1.3460214 -0.075725615 0.070653543 45
1.3075814 -0.0740209 -0.20743214 100
1.288222 -0.073376104 -0.15843016 79
1.3706516 -0.078311235 0.21744394 100
1.4014274 -0.080314994 0.27285689 64
1.3573995 -0.080644384 0.023735272 100
1.3457489 -0.080423638 0.070653543 47
1.3132304 -0.078940339 -0.20837073 100
1.2919209 -0.078112006 -0.15891764 79
1.3526241 -0.08201918 0.21462812 100
1.4030982 -0.085325561 0.27323848 67
1.3451352 -0.084628724 0.023525843 100
1.3574197 -0.085877314 0.071281582 46
1.3030899 -0.082896836 -0.20680638 100
1.4006134 -0.08934629 0.17232326 41
1.2916404 -0.082621172 -0.15891764 77
1.3641574 -0.087498866 0.21650532 100
1.3102921 -0.084043868 -0.11487127 41
1.3831997 -0.088962667 0.26942232 70
1.3468268 -0.089456148 0.023560748 100
1.3610973 -0.090881191 0.071490921 46
1.3087054 -0.087841831 -0.207745 100
1.3983124 -0.094101526 0.17207953 100
1.3032278 -0.087931149 -0.16038008 81
1.3638438 -0.09226013 0.21650532 100
1.3358328 -0.090365268 -0.11713732 100
1.3867983 -0.0940561 0.27018553 69
1.352491 -0.094575375 0.023665464 100
1.3528024 -0.095071696 0.071072236 46
1.3024794 -0.091992036 -0.20680638 100
1.3940152 -0.098701552 0.17159206 46
1.2910321 -0.091636434 -0.15891764 72
1.3792765 -0.098141894 0.21900828 100
1.3374965 -0.095169052 -0.11731163 53
1.390378 -0.099175721 0.2709488 69
1.360285 -0.097745083 -0.023805084 10
1.3521526 -0.099295877 0.023665464 100
1.3524797 -0.099557228 0.071072236 46
1.3139703 -0.097414255 -0.20868361 100
1.3718861 -0.10194875 0.16891092 46
1.2907044 -0.096142411 -0.15891764 77
1.3750037 -0.10242172 0.21838254 100
1.327222 -0.099095486 -0.11644007 67
1.3978544 -0.10461451 0.27247527 69
1.3280482 -0.099856451 -0.023246605 35
1.3637787 -0.10469762 0.023874892 100
1.3561066 -0.10458481 0.071281582 44
1.3706417 -0.10618707 0.12027492 100
1.317579 -0.10207617 -0.20930934 100
1.3794571 -0.10711223 0.16988587 48
1.2903785 -0.10042202 -0.15891764 81
1.370699 -0.10691355 0.21775681 100
1.3030319 -0.10186438 -0.11434833 66
1.405329 -0.10986143 0.27400175 68
1.317724 -0.10370713 -0.023072081 85
1.3534386 -0.10865734 0.023700368 100
1.3597149 -0.10963892 0.071490921 46
1.368296 -0.11057121 0.12010061 30
1.3093389 -0.10603695 -0.20805787 100
1.3869891 -0.11256911 0.17086083 47
1.2979343 -0.10556939 -0.15989259 79
1.3683486 -0.11153704 0.21744394 100
1.3125973 -0.10722325 -0.11521988 68
1.39711 -0.11412691 0.27247527 70
1.3153611 -0.10814238 -0.023037177 100
1.3470731 -0.11288013 0.023595655 100
1.3712652 -0.11538938 0.072118953 45
1.3718523 -0.11592104 0.12044924 33
1.3089415 -0.11083519 -0.20805787 100
1.3826319 -0.11707496 0.17037337 48
1.3054699 -0.11077072 -0.16086754 79
1.3797606 -0.11731693 0.21932115 100
1.3201559 -0.11248099 -0.11591713 68
1.3849455 -0.11824474 0.27018553 72
1.333293 -0.11406911 -0.070130184 32
1.3309146 -0.11409963 -0.023316415 100
1.3546185 -0.11851376 0.023735272 100
1.3589163 -0.11912876 0.071490921 44
1.3754086 -0.12105836 0.12079786 31
1.3085467 -0.11540358 -0.20805787 100
1.3782386 -0.12179229 0.16988587 48
1.3011005 -0.1152046 -0.16038008 79
1.3852457 -0.12265516 0.22025976 100
1.3237244 -0.11744066 -0.11626577 71
1.3962576 -0.12412141 0.27247527 68
1.3269186 -0.11819089 -0.069816172 100
1.3384755 -0.11945574 -0.023456035 100
1.3542181 -0.12300519 0.023735272 100
1.3505361 -0.12314609 0.071072236 46
1.3888664 -0.12713002 0.12201804 34
1.3199596 -0.12082263 -0.20993507 100
1.3857342 -0.12708719 0.17086083 47
1.3007113 -0.11951859 -0.16038008 77
1.3749739 -0.12658435 0.21869542 100
1.3312421 -0.12279259 -0.116963 71
1.4153879 -0.13055412 0.27629143 70
1.3424295 -0.12406079 -0.070653543 60
1.3280946 -0.12320361 -0.023281511 100
1.3677164 -0.12904643 0.023979606 100
1.3660049 -0.12936603 0.071909614 46
1.3745527 -0.1304176 0.12079786 32
1.3273958 -0.12617712 -0.21118654 100
1.3892344 -0.13229993 0.1713483 46
1.3042383 -0.12443525 -0.16086754 81
1.3705908 -0.13100721 0.21806967 100
1.314939 -0.12591937 -0.11556852 73
1.4149235 -0.13549395 0.27629143 75
1.3479527 -0.12931821 -0.070967562 75
1.3336278 -0.12841375 -0.023386225 100
1.3592969 -0.13304071 0.023839988 100
1.3734958 -0.13491447 0.072328299 45
1.3760483 -0.13565017 0.12097216 34
1.3111981 -0.12948835 -0.20868361 100
1.3887641 -0.13714844 0.1713483 48
1.3116977 -0.12976886 -0.1618425 83
1.3799537 -0.13676476 0.21963401 100
1.3144914 -0.1305086 -0.11556852 68
1.4007421 -0.13931884 0.2736201 83
1.33952 -0.13346577 -0.070548877 70
1.3311816 -0.1328696 -0.023351319 100
1.3548213 -0.13761772 0.023770178 100
1.3769904 -0.14011241 0.072537638 49
1.3775486 -0.14065504 0.12114649 32
1.3146683 -0.13446647 -0.20930934 100
1.3843027 -0.14183293 0.17086083 56
1.3191123 -0.1353863 -0.16281746 83
1.379468 -0.14158086 0.21963401 100
1.3259195 -0.13631883 -0.11661438 68
1.4041531 -0.14460975 0.27438337 80
1.3310992 -0.13732091 -0.070130184 70
1.3386661 -0.13833769 -0.023490939 100
1.3662901 -0.14336178 0.023979606 100
1.3606029 -0.14324522 0.071700267 49
1.3889374 -0.14671852 0.12219235 32
1.318144 -0.13924035 -0.20993507 100
1.3739545 -0.14537831 0.16964214 38
1.3028638 -0.13808613 -0.16086754 81
1.3333604 -0.14178903 -0.11731163 73
1.4036659 -0.14926529 0.27438337 80
1.3266644 -0.14131117 -0.069920845 73
1.3421518 -0.14343464 -0.023560748 100
1.3697574 -0.14856139 0.024049416 100
1.3640656 -0.14842583 0.071909614 47
1.3884432 -0.15132359 0.12219235 33
1.31765 -0.14384069 -0.20993507 100
1.3063205 -0.14306536 -0.16135503 81
1.3902276 -0.15250023 0.22151121 7
1.3288964 -0.14600728 -0.116963 68
1.4109423 -0.15502176 0.27590984 83
1.3341042 -0.14681512 -0.070339531 73
1.3356802 -0.14746046 -0.023456035 100
1.3771795 -0.15423204 0.024189034 100
1.3675086 -0.15363234 0.072118953 49
1.3839196 -0.15596522 0.12184373 33
1.3249655 -0.1495554 -0.21118654 100
1.400522 -0.15808384 0.17305449 20
1.3137031 -0.14851637 -0.16232997 79
1.3896867 -0.1573521 0.22151121 10
1.3323381 -0.15109412 -0.11731163 71
1.4181676 -0.16107833 0.27743632 80
1.3454639 -0.15305835 -0.070967562 73
1.3351574 -0.15212196 -0.023456035 100
1.3646864 -0.1578996 0.023979606 100
1.3748722 -0.1595645 0.072537638 47
1.3794086 -0.16033497 0.12149511 33
1.3205111 -0.15372266 -0.21056081 100
1.3999331 -0.16321595 0.17305449 20
1.3131499 -0.15333033 -0.16232997 79
1.3910627 -0.16267395 0.22182411 12
1.3199291 -0.15435544 -0.11626577 73
1.409797 -0.16511419 0.27590984 86
1.352856 -0.15868469 -0.071386255 76
1.3365767 -0.15724818 -0.023490939 100
1.3680981 -0.16313583 0.024049416 100
1.3762898 -0.1645999 0.072642311 50
1.3887317 -0.16633375 0.12236666 34
1.3140825 -0.15762538 -0.2096222 100
1.3993549 -0.16810162 0.17305449 20
1.3165485 -0.15838736 -0.16281746 77
1.4002924 -0.16871013 0.22338845 12
1.3272946 -0.15991519 -0.116963 62
1.409212 -0.17003429 0.27590984 77
1.3403969 -0.16196847 -0.070758224 89
1.3499159 -0.16359684 -0.023735272 100
1.3675203 -0.1679104 0.024049416 100
1.3836361 -0.17037944 0.073060997 51
1.400007 -0.17264338 0.12341253 35
1.3233267 -0.16342194 -0.21118654 100
1.4007297 -0.17322889 0.17329822 20
1.3100774 -0.16225006 -0.16208623 66
1.399695 -0.17359702 0.22338845 12
1.4164031 -0.17592026 0.27743632 83
1.3239675 -0.16467421 -0.069920845 75
1.3473523 -0.16806041 -0.023700368 100
1.3708937 -0.17318414 0.024119226 100
1.3790702 -0.17470616 0.072851658 49
1.407302 -0.17853226 0.12410977 35
1.3286272 -0.16878708 -0.21212517 100
1.4099625 -0.17936988 0.17451692 25
1.3951614 -0.17798185 0.2227627 13
1.3459097 -0.17169878 -0.11870612 36
1.4274647 -0.18235601 0.279726 80
1.3412145 -0.17157564 -0.070862897 85
1.3427906 -0.17225365 -0.023630559 100
1.3822104 -0.17927249 0.024328655 100
1.3864056 -0.1803087 0.073270351 50
1.402751 -0.18268347 0.12376115 36
1.3319777 -0.17370294 -0.2127509 100
1.4211704 -0.1855868 0.17597936 53
1.328626 -0.17373753 -0.16452362 31
1.3906462 -0.18209445 0.22213697 13
1.3374002 -0.17535971 -0.11800887 100
1.4307454 -0.18759912 0.28048924 77
1.3505396 -0.17732233 -0.071386255 89
1.342212 -0.17670557 -0.023630559 100
1.3677011 -0.18224733 0.024084322 100
1.3857678 -0.18514705 0.073270351 48
1.402072 -0.18782358 0.12376115 34
1.3235008 -0.17753322 -0.21149944 100
1.4205139 -0.19054647 0.17597936 68
1.3358814 -0.17943127 -0.16549858 100
1.3997909 -0.18826415 0.22370131 13
1.3308561 -0.17922926 -0.11748594 56
1.4164288 -0.19100523 0.2778179 86
1.3577977 -0.18334015 -0.071804941 89
1.3455503 -0.18192554 -0.023700368 100
1.3690051 -0.18753037 0.024119226 100
1.3890371 -0.19076841 0.07347969 52
1.4014077 -0.19271658 0.12376115 36
1.322873 -0.182152 -0.21149944 100
1.4021075 -0.19331151 0.1737857 60
1.3529125 -0.18676953 -0.16769223 75
1.4088752 -0.19474578 0.22526565 12
1.3341697 -0.18441939 -0.11783457 70
1.4079745 -0.19487168 0.27629143 77
1.3294525 -0.18424028 -0.070339531 77
1.3488358 -0.18740641 -0.023770178 100
1.376263 -0.19342117 0.024258846 100
1.3844074 -0.19505857 0.073270351 49
1.4007264 -0.19760722 0.12376115 35
1.326141 -0.18732116 -0.21212517 100
1.397493 -0.19764863 0.17329822 70
1.3404595 -0.18982096 -0.1662298 96
1.4140545 -0.20049442 0.22620426 9
1.3315451 -0.18879569 -0.11766025 65
1.4228359 -0.20199285 0.27934438 80
1.3268238 -0.18859875 -0.070234857 85
1.3600516 -0.19380617 -0.023979606 100
1.3795381 -0.19879447 0.024328655 100
1.3797994 -0.19907795 0.073060997 50
1.4079157 -0.2036363 0.1244584 36
1.3332989 -0.19308156 -0.21337664 100
1.3967947 -0.20252559 0.17329822 65
1.3437177 -0.19506927 -0.16671728 106
1.4036074 -0.20376353 0.22463992 7
1.3446798 -0.19544856 -0.11888044 42
1.4337788 -0.2086546 0.28163409 86
1.3320867 -0.194093 -0.070548877 77
1.363359 -0.19889255 -0.024049416 100
1.3867844 -0.20453517 0.024468275 100
1.3869991 -0.20506157 0.07347969 48
1.4071964 -0.20854959 0.1244584 37
1.3443755 -0.1992394 -0.21525384 100
1.4157512 -0.21006998 0.17573561 14
1.3352094 -0.19835731 -0.16574231 98
1.4204726 -0.21127734 0.22745575 16
1.3301947 -0.19808696 -0.11766025 29
1.4369626 -0.21398638 0.28239733 77
1.3353866 -0.19909832 -0.070758224 75
1.3666118 -0.20424148 -0.024119226 100
1.3781528 -0.20818 0.024328655 100
1.3981233 -0.21169588 0.074107721 52
1.3986175 -0.21202041 0.12376115 39
1.3280478 -0.20155968 -0.2127509 100
1.43071 -0.21739629 0.17768551 19
1.3345088 -0.20301685 -0.16574231 72
1.4099621 -0.21474725 0.2258914 55
1.351161 -0.20603269 -0.11957768 14
1.424562 -0.2172253 0.28010762 80
1.3504784 -0.2061698 -0.071595594 75
1.3698438 -0.20961556 -0.024189034 100
1.3714892 -0.21207264 0.024223939 100
1.4052707 -0.21779853 0.074526407 52
1.4096437 -0.21898019 0.12480702 35
1.3273002 -0.20642588 -0.2127509 100
1.4122887 -0.21964355 0.17549187 58
1.3357536 -0.20797932 -0.16598606 59
1.4092039 -0.2196676 0.2258914 100
1.3622448 -0.21259114 -0.12062354 21
1.4198769 -0.22183903 0.27934438 77
1.3576069 -0.2123528 -0.07201428 89
1.3770063 -0.21563344 -0.024328655 100
1.3845283 -0.21928775 0.024468275 100
1.3926276 -0.22106887 0.073898375 51
1.4088706 -0.22389942 0.12480702 35
1.332424 -0.21198887 -0.21368951 100
1.4212761 -0.2263796 0.17671056 92
1.3310616 -0.21224852 -0.16549858 100
1.4142413 -0.22576532 0.22683001 100
1.3516573 -0.21577457 -0.11975199 24
1.4346031 -0.22927259 0.28239733 80
1.3548852 -0.21677491 -0.071909614 93
1.3722578 -0.22004575 -0.024258846 100
1.3877022 -0.22475873 0.024538083 100
1.3879046 -0.22528872 0.073689036 50
1.4198802 -0.23073341 0.1258529 36
1.3414246 -0.21822454 -0.21525384 100
1.4087216 -0.22942486 0.17524813 65
1.3361902 -0.21785179 -0.1662298 59
1.3666267 -0.223059 -0.12114649 24
1.4454194 -0.23617844 0.28468704 80
1.3442649 -0.21989092 -0.071386255 80
1.3754281 -0.22548148 -0.024328655 100
1.3948007 -0.23090775 0.024677703 100
1.3989316 -0.23209336 0.074317068 54
1.4072732 -0.23372966 0.12480702 38
1.3484492 -0.22420162 -0.21650532 100
1.4274937 -0.23760007 0.17768551 14
1.3236731 -0.22055705 -0.16476737 100
1.4145792 -0.235958 0.22714287 18
1.3560135 -0.22618902 -0.12027492 14
1.4426497 -0.2408991 0.28430542 69
1.3533388 -0.22622843 -0.071909614 85
1.3706882 -0.2296205 -0.024258846 100
1.3801843 -0.23344067 0.024433369 100
1.3941746 -0.23630758 0.074107721 52
1.4084129 -0.23897383 0.12498133 36
1.3457109 -0.22857641 -0.21619245 90
1.4520967 -0.2469074 0.18085413 69
1.3463784 -0.22917338 -0.16769223 33
1.4137468 -0.24089439 0.22714287 84
1.3414671 -0.22857834 -0.11905474 14
1.4379294 -0.2452732 0.28354219 72
1.3505721 -0.23061492 -0.071804941 80
1.3738204 -0.23507822 -0.024328655 100
1.3813316 -0.23859739 0.024468275 100
1.3972772 -0.241854 0.074317068 52
1.4075702 -0.24388866 0.12498133 36
1.3410122 -0.23259728 -0.21556671 90
1.3475261 -0.23421164 -0.16793597 27
1.4128973 -0.24582781 0.22714287 100
1.362253 -0.23701628 -0.12097216 21
1.4370645 -0.25029102 0.28354219 70
1.3438561 -0.23429875 -0.071490921 85
1.3808709 -0.24124892 -0.024468275 100
1.3844289 -0.24411216 0.024538083 100
1.3924909 -0.24603491 0.074107721 52
1.4145582 -0.25018853 0.12567857 38
1.3479725 -0.23865438 -0.21681818 86
1.4131995 -0.25045699 0.17622308 51
1.3369274 -0.23718019 -0.16671728 100
1.4275904 -0.25352141 0.22964582 100
1.3673024 -0.24281508 -0.12149511 21
1.4361821 -0.2553058 0.28354219 68
1.3508956 -0.24038792 -0.071909614 83
1.3800204 -0.24606758 -0.024468275 100
1.3953769 -0.25106794 0.024747513 100
1.3916674 -0.25065124 0.074107721 52
1.4215192 -0.25654012 0.12637582 39
1.3471313 -0.24335821 -0.21681818 83
1.4240371 -0.25750786 0.17768551 51
1.3497648 -0.24432054 -0.16842344 100
1.4170227 -0.25649488 0.22808148 100
1.3762488 -0.24936248 -0.12236666 20
1.4526678 -0.26347071 0.28697675 100
1.3500482 -0.24510196 -0.071909614 88
1.3752619 -0.24992746 -0.024398465 100
1.3945367 -0.25569376 0.024747513 100
1.3947127 -0.25622931 0.074317068 54
1.4088582 -0.25933644 0.12532996 38
1.3540878 -0.24925457 -0.21806967 72
1.4231755 -0.26222873 0.17768551 50
1.3548037 -0.24987531 -0.16915466 100
1.4141762 -0.26108101 0.22776861 94
1.3675332 -0.25271672 -0.12166941 20
1.3610116 -0.25175723 -0.072537638 88
1.3743812 -0.2547265 -0.024398465 100
1.3897043 -0.25982505 0.024677703 100
1.4016623 -0.26256716 0.074735753 54
1.4040737 -0.26327258 0.12498133 37
1.3454436 -0.25252214 -0.21681818 70
1.4300553 -0.26866102 0.17866047 100
1.3686457 -0.25761878 -0.12184373 33
1.3719006 -0.25872734 -0.073165677 83
1.3813432 -0.26100752 -0.024538083 100
1.3887889 -0.26467445 0.024677703 100
1.4164318 -0.27045503 0.075573131 54
1.4148881 -0.27041626 0.12602721 85
1.3464942 -0.25758824 -0.21713105 58
1.3803207 -0.26455885 -0.172567 46
1.3533369 -0.26012173 -0.072223626 75
1.3804237 -0.26582769 -0.024538083 100
1.3957087 -0.27104548 0.024817321 100
1.395874 -0.27158329 0.074526407 41
1.3514035 -0.26342064 -0.21806967 50
1.3521128 -0.26404884 -0.16915466 66
1.3687693 -0.26754963 -0.12201804 67
1.3602606 -0.26637948 -0.072642311 75
1.3873366 -0.27218458 -0.024677703 100
1.3927923 -0.27552769 0.024782417 100
1.3582261 -0.26967511 -0.21932115 42
1.3589706 -0.27031606 -0.17012961 90
1.3775971 -0.27427104 -0.12288959 68
1.374992 -0.2742514 -0.07347969 76
1.3785343 -0.27545834 -0.024538083 100
1.3611488 -0.27519748 -0.21994688 43
1.36191 -0.27584624 -0.1706171 81
1.3590574 -0.27551544 -0.12132079 66
1.3740263 -0.27904934 -0.07347969 73
1.3814836 -0.281066 -0.024607893 56
1.3524406 -0.27835426 -0.21869542 43
1.3648272 -0.2814002 -0.17110457 77
1.3580873 -0.2802577 -0.12132079 64
